X,Y,Z,Distance,Pan,Tilt
10.915833847779671,-4.190196026584873,-2.69941265212638,12,-21.0,-13.0
10.951984100645872,-4.094779065192658,-2.69941265212638,12,-20.5,-13.0
10.987300317520477,-3.999050270521047,-2.69941265212638,12,-20.0,-13.0
11.02177980893684,-3.903016932688383,-2.69941265212638,12,-19.5,-13.0
11.055419949148195,-3.806686365005151,-2.69941265212638,12,-19.0,-13.0
10.16419999496699,-3.400893744798951,-2.474461597782515,11,-18.5,-13.0
10.193490993366217,-3.3120659971174176,-2.474461597782515,11,-18.0,-13.0
10.222005717960595,-3.22298602278702,-2.474461597782515,11,-17.5,-13.0
10.249741997243445,-3.1336606055926897,-2.474461597782515,11,-17.0,-13.0
11.2109429661706,-3.320832597829944,-2.69941265212638,12,-16.5,-13.0
11.239495451363819,-3.222873458935685,-2.69941265212638,12,-16.0,-13.0
11.267192005462938,-3.1246688857496663,-2.69941265212638,12,-15.5,-13.0
12.235199729207148,-3.278411886674546,-2.924363706470245,13,-15.0,-13.0
12.263343027999563,-3.1715161500288964,-2.924363706470245,13,-14.5,-13.0
12.290552425740934,-3.064378890149397,-2.924363706470245,13,-14.0,-13.0
13.264273992663373,-3.1844704402572788,-3.14931476081411,14,-13.5,-13.0
13.291558324094169,-3.068598027523542,-3.14931476081411,14,-13.0,-13.0
14.26910405560524,-3.163384209824409,-3.374265815157975,15,-12.5,-13.0
44.79465383153647,-9.521397599630275,-10.572699554161655,47,-12.0,-13.0
44.87603700252436,-9.130132917186598,-10.572699554161655,47,-11.5,-13.0
44.954002689549874,-8.738172939772532,-10.572699554161655,47,-11.0,-13.0
45.02854495522408,-8.345547516657891,-10.572699554161655,47,-10.5,-13.0
45.09965812286483,-7.952286547788752,-10.572699554161655,47,-10.0,-13.0
44.206329611462536,-7.397602535095357,-10.34774849981779,46,-9.5,-13.0
44.269201811012074,-7.011552752451095,-10.34774849981779,46,-9.0,-13.0
44.32870273944851,-6.624969012918404,-10.34774849981779,46,-8.5,-13.0
44.384827865545795,-6.237880756345769,-10.34774849981779,46,-8.0,-13.0
44.437572915158256,-5.850317461002599,-10.34774849981779,46,-7.5,-13.0
43.51982661346909,-5.343562801305343,-10.122797445473925,45,-7.0,-13.0
43.564800302297236,-4.963582022981945,-10.122797445473925,45,-6.5,-13.0
43.60645636291438,-4.583223248670207,-10.122797445473925,45,-6.0,-13.0
43.644791623050224,-4.202515444163412,-10.122797445473925,45,-5.5,-13.0
43.67980316332629,-3.8214876018348445,-10.122797445473925,45,-5.0,-13.0
43.711488317478235,-3.4401687384299064,-10.122797445473925,45,-4.5,-13.0
43.7398446725589,-3.0585878928563823,-10.122797445473925,45,-4.0,-13.0
43.764870069122054,-2.6767741239730123,-10.122797445473925,45,-3.5,-13.0
43.786562601386855,-2.2947565083765493,-10.122797445473925,45,-3.0,-13.0
43.804920617383004,-1.912564138187462,-10.122797445473925,45,-2.5,-13.0
43.81994271907648,-1.5302261188344588,-10.122797445473925,45,-2.0,-13.0
43.831627762476096,-1.1477715668379953,-10.122797445473925,45,-1.5,-13.0
43.839974857720556,-0.7652296075929387,-10.122797445473925,45,-1.0,-13.0
43.84498336914623,-0.382629373150557,-10.122797445473925,45,-0.5,-13.0
42.87228285055035,0.0,-9.89784639113006,44,0.0,-13.0
42.870650405387416,0.37412649819165567,-9.89784639113006,44,0.5,-13.0
42.86575319421565,0.7482245052019844,-9.89784639113006,44,1.0,-13.0
42.85759158997662,1.122265532019373,-9.89784639113006,44,1.5,-13.0
42.84616621420811,1.4962210939714709,-9.89784639113006,44,2.0,-13.0
42.831477936996706,1.8700627128944072,-9.89784639113006,44,2.5,-13.0
42.813527876911586,2.2437619193015146,-9.89784639113006,44,3.0,-13.0
42.79231740091934,2.6172902545513894,-9.89784639113006,44,3.5,-13.0
42.76784812427981,2.990619273015129,-9.89784639113006,44,4.0,-13.0
37.8832898751478,2.981479573305919,-8.773091119410735,39,4.5,-13.0
26.207881897995776,2.292892561100907,-6.073678467284355,27,5.0,-13.0
26.186874973830136,2.521509266498047,-6.073678467284355,27,5.5,-13.0
25.194841454128305,2.6480845436761196,-5.84872741294049,26,6.0,-13.0
25.170773507993957,2.8678473910562348,-5.84872741294049,26,6.5,-13.0
24.17768145192727,2.9686460007251907,-5.623776358596625,25,7.0,-13.0
23.184820651386914,3.052339544870921,-5.39882530425276,24,7.5,-13.0
23.15730149506737,3.254546481571705,-5.39882530425276,24,8.0,-13.0
24.091686271439407,3.600526637455655,-5.623776358596625,25,8.5,-13.0
23.09697485791934,3.6582014360614408,-5.39882530425276,24,9.0,-13.0
23.064171971197844,3.859618713962795,-5.39882530425276,24,9.5,-13.0
23.02961265848417,4.060742066955958,-5.39882530425276,24,10.0,-13.0
22.993299551603783,4.261556178718923,-5.39882530425276,24,10.5,-13.0
22.95523541594036,4.462045756479591,-5.39882530425276,24,11.0,-13.0
22.915423150225205,4.662195532180391,-5.39882530425276,24,11.5,-13.0
22.873865786316497,4.861990263640991,-5.39882530425276,24,12.0,-13.0
24.733113696382414,5.483199297028976,-5.84872741294049,26,12.5,-13.0
25.633719625038758,5.918010481652546,-6.073678467284355,27,13.0,-13.0
41.68771826265632,10.008335669380019,-9.89784639113006,44,13.5,-13.0
41.5987928255847,10.371743935890267,-9.89784639113006,44,14.0,-13.0
41.50669947938314,10.734362353943956,-9.89784639113006,44,14.5,-13.0
41.4114452373165,11.096163308744616,-9.89784639113006,44,15.0,-13.0
41.31303735336411,11.457119247748775,-9.89784639113006,44,15.5,-13.0
42.148107942614324,12.08577547100882,-10.122797445473925,45,16.0,-13.0
42.041036123139754,12.453122241862292,-10.122797445473925,45,16.5,-13.0
41.93076271599592,12.819520659242823,-10.122797445473925,45,17.0,-13.0
41.81729611892971,13.184942820492356,-10.122797445473925,45,17.5,-13.0
41.7006449728618,13.549360897298529,-10.122797445473925,45,18.0,-13.0
41.5808181612286,13.912747137813891,-10.122797445473925,45,18.5,-13.0
41.45782480930574,14.275073868769317,-10.122797445473925,45,19.0,-13.0
42.25015593425789,14.961564908638803,-10.34774849981779,46,19.5,-13.0
42.117984550495166,15.329692703664016,-10.34774849981779,46,20.0,-13.0
42.895271060862996,16.03788467200458,-10.572699554161655,47,20.5,-13.0
42.75368257047038,16.411601104124088,-10.572699554161655,47,21.0,-13.0
41.70226719563045,16.4269599052522,-10.34774849981779,46,21.5,-13.0
41.55732885233498,16.79025073199937,-10.34774849981779,46,22.0,-13.0
41.40922575755167,17.1522629161472,-10.34774849981779,46,22.5,-13.0
42.15488156359816,17.893685604045984,-10.572699554161655,47,23.0,-13.0
41.99712655225754,18.260870337721986,-10.572699554161655,47,23.5,-13.0
41.83617329713148,18.626664435421937,-10.572699554161655,47,24.0,-13.0
41.67203405543352,18.99104004050907,-10.572699554161655,47,24.5,-13.0
42.38780050417266,19.765755987442024,-10.79765060850552,48,25.0,-13.0
43.356409011573625,-20.217425552197174,-10.605541082967042,49,-25.0,-12.5
41.75440310335582,-19.02857777829048,-10.172661855090835,47,-24.5,-12.5
41.9188667830941,-18.663481947460657,-10.172661855090835,47,-24.0,-12.5
10.743865066935667,-4.671565486014107,-2.5972753672572346,12,-23.5,-12.5
9.885537342561506,-4.1961616466169795,-2.3808357533191318,11,-23.0,-12.5
10.823758783807198,-4.4833476841078586,-2.5972753672572346,12,-22.5,-12.5
10.862470740955482,-4.388723056713062,-2.5972753672572346,12,-22.0,-12.5
10.900355478901076,-4.2937642110658665,-2.5972753672572346,12,-21.5,-12.5
10.93741011257451,-4.198478378650012,-2.5972753672572346,12,-21.0,-12.5
10.973631820121964,-4.102872815850555,-2.5972753672572346,12,-20.5,-12.5
11.009017843120176,-4.006954803401252,-2.5972753672572346,12,-20.0,-12.5
11.043565486786488,-3.910731645830114,-2.5972753672572346,12,-19.5,-12.5
11.077272120184078,-3.8142106709031336,-2.5972753672572346,12,-19.0,-12.5
10.18429057838712,-3.407615959977392,-2.3808357533191318,11,-18.5,-12.5
11.142152152852226,-3.6203046928855684,-2.5972753672572346,12,-18.0,-12.5
10.242210560319013,-3.2293565851121198,-2.3808357533191318,11,-17.5,-12.5
10.27000166320165,-3.1398546070722166,-2.3808357533191318,11,-17.0,-12.5
11.233102544395319,-3.327396563942774,-2.5972753672572346,12,-16.5,-12.5
11.261711466502993,-3.2292437987667912,-2.5972753672572346,12,-16.0,-12.5
11.289462765681003,-3.130845114173007,-2.5972753672572346,12,-15.5,-12.5
12.259383855940516,-3.2848920039024043,-2.8137149811953375,13,-15.0,-12.5
12.287582782848514,-3.1777849768733106,-2.8137149811953375,13,-14.5,-12.5
12.314845962754285,-3.0704359492149327,-2.8137149811953375,13,-14.0,-12.5
12.341171319461129,-2.962853095971346,-2.8137149811953375,13,-13.5,-12.5
12.366556848191207,-2.855044609993349,-2.8137149811953375,13,-13.0,-12.5
13.34415450925655,-2.958327832184896,-3.0301545951334403,14,-12.5,-12.5
15.279385551525717,-3.2477336572629207,-3.463033823009646,16,-12.0,-12.5
44.96473909077632,-9.148179561005144,-10.172661855090835,47,-11.5,-12.5
45.04285888497601,-8.755444834508268,-10.172661855090835,47,-11.0,-12.5
45.1175484910811,-8.36204334698916,-10.172661855090835,47,-10.5,-12.5
45.188802221188894,-7.968005057494214,-10.172661855090835,47,-10.0,-12.5
44.29370795439131,-7.412224654978269,-9.956222241152732,46,-9.5,-12.5
44.35670442728951,-7.0254118053571295,-9.956222241152732,46,-9.0,-12.5
44.4163229654116,-6.638063943427025,-9.956222241152732,46,-8.5,-12.5
44.47255902857509,-6.250210567227318,-9.956222241152732,46,-8.0,-12.5
44.52540833418604,-5.861881213294242,-9.956222241152732,46,-7.5,-12.5
43.60584801283554,-5.3541249010548055,-9.739782627214629,45,-7.0,-12.5
44.62093083225457,-5.083912897358574,-9.956222241152732,46,-6.5,-12.5
43.6926489948627,-4.592282459336672,-9.739782627214629,45,-6.0,-12.5
43.7310600285707,-4.210822146820498,-9.739782627214629,45,-5.5,-12.5
43.76614077274584,-3.829041163894984,-9.739782627214629,45,-5.0,-12.5
43.79788855585363,-3.446968584660104,-9.739782627214629,45,-4.5,-12.5
43.82630096017747,-3.06463350542202,-9.739782627214629,45,-4.0,-12.5
43.85137582200277,-2.682065042477287,-9.739782627214629,45,-3.5,-12.5
43.87311123178172,-2.2992923298955326,-9.739782627214629,45,-3.0,-12.5
43.89150553427872,-1.9163445173007843,-9.739782627214629,45,-2.5,-12.5
43.9065573286964,-1.533250767651614,-9.739782627214629,45,-2.0,-12.5
43.91826546878236,-1.1500402550202655,-9.739782627214629,45,-1.5,-12.5
42.950481750407135,-0.749703447651581,-9.523343013276527,44,-1.0,-12.5
42.9553886414189,-0.37486599757432454,-9.523343013276527,44,-0.5,-12.5
42.95702431327707,0.0,-9.523343013276527,44,0.0,-12.5
42.9553886414189,0.37486599757432454,-9.523343013276527,44,0.5,-12.5
42.950481750407135,0.749703447651581,-9.523343013276527,44,1.0,-12.5
42.94230401392053,1.124483804908704,-9.523343013276527,44,1.5,-12.5
42.930856054725375,1.499178528370467,-9.523343013276527,44,2.0,-12.5
42.91613874462808,1.8737590835829891,-9.523343013276527,44,2.5,-12.5
42.89815320440879,2.248196944786743,-9.523343013276527,44,3.0,-12.5
42.87690080373604,2.622463597088903,-9.523343013276527,44,3.5,-12.5
42.85238316106241,2.996530538634864,-9.523343013276527,44,4.0,-12.5
40.87802931879672,3.2171706790160965,-9.09046378540032,42,4.5,-12.5
29.177427181830563,2.5526941092633226,-6.493188418143086,30,5.0,-12.5
29.154040019047137,2.807214764546999,-6.493188418143086,30,5.5,-12.5
28.15748490780041,2.9594709182391883,-6.276748804204983,29,6.0,-12.5
25.220526122578672,2.8735159854635417,-5.627429962390675,26,6.5,-12.5
25.19448996297164,3.09349438727611,-5.627429962390675,26,7.0,-12.5
24.198591485970674,3.1858050072251314,-5.410990348452572,25,7.5,-12.5
24.16986903726907,3.3968535691452812,-5.410990348452572,25,8.0,-12.5
23.17373372108431,3.4633377096140996,-5.194550734514469,24,8.5,-12.5
23.142628396846696,3.6654322462732845,-5.194550734514469,24,9.0,-12.5
23.109760671856336,3.867247646075618,-5.194550734514469,24,9.5,-12.5
23.07513304911773,4.068768539997045,-5.194550734514469,24,10.0,-12.5
23.038748165658433,4.269979581441273,-5.194550734514469,24,10.5,-12.5
23.000608792328176,4.470865447408476,-5.194550734514469,24,11.0,-12.5
23.9174144099874,4.866052957981458,-5.410990348452572,25,11.5,-12.5
24.82900152122929,5.2775671930522465,-5.627429962390675,26,12.0,-12.5
24.78200123147645,5.494037402629092,-5.627429962390675,26,12.5,-12.5
30.44075531862451,7.027802116906705,-6.926067646019292,32,13.0,-12.5
41.77011831202228,10.028118170979939,-9.523343013276527,44,13.5,-12.5
41.68101710470681,10.392244751189002,-9.523343013276527,44,14.0,-12.5
41.588741726564194,10.755579921725051,-9.523343013276527,44,14.5,-12.5
42.43632873210179,11.370780013508323,-9.739782627214629,45,15.0,-12.5
42.33548537130377,11.740669178148778,-9.739782627214629,45,15.5,-12.5
42.23141799938623,12.109664245375468,-9.739782627214629,45,16.0,-12.5
42.12413454148245,12.477737114785404,-9.739782627214629,45,16.5,-12.5
42.01364316764312,12.844859756204523,-9.739782627214629,45,17.0,-12.5
41.899952292214145,13.211004211822308,-9.739782627214629,45,17.5,-12.5
41.78307057319585,13.576142598320882,-9.739782627214629,45,18.0,-12.5
41.66300691158368,13.940247108998424,-9.739782627214629,45,18.5,-12.5
42.46287646070564,14.62114090512868,-9.956222241152732,46,19.0,-12.5
41.413370575449335,14.665243671862928,-9.739782627214629,45,19.5,-12.5
42.201235065294014,15.359993413038135,-9.956222241152732,46,20.0,-12.5
42.06558864380087,15.727679127427127,-9.956222241152732,46,20.5,-12.5
41.92673876486896,16.09416711815838,-9.956222241152732,46,21.0,-12.5
41.784696002454126,16.45942947575249,-9.956222241152732,46,21.5,-12.5
42.54467706874231,17.189165305459497,-10.172661855090835,47,22.0,-12.5
42.3930552365782,17.559778429422447,-10.172661855090835,47,22.5,-12.5
42.23820500912644,17.92905430827255,-10.172661855090835,47,23.0,-12.5
42.08013817883137,18.296964820221923,-10.172661855090835,47,23.5,-12.5
41.9188667830941,18.663481947460657,-10.172661855090835,47,24.0,-12.5
41.75440310335582,19.02857777829048,-10.172661855090835,47,24.5,-12.5
41.586759664162464,19.392224509250354,-10.172661855090835,47,25.0,-12.5
41.66563100856441,-19.429002821153965,-9.77184946843469,47,-25.0,-12.0
41.833592391823046,-19.064666416201938,-9.77184946843469,47,-24.5,-12.0
10.722987570652519,-4.774181658661395,-2.494940289813112,12,-24.0,-12.0
9.867221226374319,-4.290389895704753,-2.2870285989953527,11,-23.5,-12.0
9.904285752551608,-4.2041198745017505,-2.2870285989953527,11,-23.0,-12.0
9.940596029022837,-4.117529693293392,-2.2870285989953527,11,-22.5,-12.0
10.8830719534035,-4.3970464868260635,-2.494940289813112,12,-22.0,-12.0
10.921028541626399,-4.301907547036415,-2.494940289813112,12,-21.5,-12.0
10.958153451243371,-4.206441000331548,-2.494940289813112,12,-21.0,-12.0
10.994443855048814,-4.110654116858607,-2.494940289813112,12,-20.5,-12.0
11.029896989387979,-4.014554191159623,-2.494940289813112,12,-20.0,-12.0
11.064510154367417,-3.9181485416160027,-2.494940289813112,12,-19.5,-12.0
11.098280714060607,-3.8214445098912107,-2.494940289813112,12,-19.0,-12.0
11.13120609670868,-3.7244494603716656,-2.494940289813112,12,-18.5,-12.0
11.163283794916271,-3.6271707796059207,-2.494940289813112,12,-18.0,-12.0
11.194511365842471,-3.529615875742147,-2.494940289813112,12,-17.5,-12.0
11.224886431386848,-3.4317921779639717,-2.494940289813112,12,-17.0,-12.0
11.254406678370561,-3.333707135924721,-2.494940289813112,12,-16.5,-12.0
11.283069858712508,-3.2353682191800965,-2.494940289813112,12,-16.0,-12.0
11.310873789600532,-3.1367829166193446,-2.494940289813112,12,-15.5,-12.0
12.282634383129123,-3.291121963886189,-2.7028519806308715,13,-15.0,-12.0
12.310886790695239,-3.1838118030884415,-2.7028519806308715,13,-14.5,-12.0
11.389109239909576,-2.8396238609494704,-2.494940289813112,12,-14.0,-12.0
11.413455655952507,-2.7401282706970096,-2.494940289813112,12,-13.5,-12.0
12.390010634254768,-2.860459343156889,-2.7028519806308715,13,-13.0,-12.0
11.459539163644287,-2.5405186689276777,-2.494940289813112,12,-12.5,-12.0
12.438045474676906,-2.6437881799927014,-2.7028519806308715,13,-12.0,-12.0
42.174483943884496,-8.58049573539119,-9.14811439598141,44,-11.5,-12.0
44.16810861800313,-8.585410607195776,-9.56393777761693,46,-11.0,-12.0
44.24134772219742,-8.199649133315983,-9.56393777761693,46,-10.5,-12.0
44.311217676475316,-7.813263224408454,-9.56393777761693,46,-10.0,-12.0
43.41298026518736,-7.26484138557663,-9.35602608679917,45,-9.5,-12.0
43.47472412816496,-6.88571984930302,-9.35602608679917,45,-9.0,-12.0
43.533157222580954,-6.506073938803739,-9.35602608679917,45,-8.5,-12.0
44.556903434051854,-6.262064400375499,-9.56393777761693,46,-8.0,-12.0
43.64007355856939,-5.7453246788833345,-9.35602608679917,45,-7.5,-12.0
43.6885486580489,-5.364279263463716,-9.35602608679917,45,-7.0,-12.0
43.73369670540101,-4.982825337409533,-9.35602608679917,45,-6.5,-12.0
43.77551426242711,-4.600991949914114,-9.35602608679917,45,-6.0,-12.0
43.813998144558326,-4.218808179068244,-9.35602608679917,45,-5.5,-12.0
43.849145421098044,-3.8363031296457577,-9.35602608679917,45,-5.0,-12.0
43.88095341544508,-3.4535059308870983,-9.35602608679917,45,-4.5,-12.0
43.90941970529751,-3.070445734281009,-9.35602608679917,45,-4.0,-12.0
43.93454212283714,-2.687151711344541,-9.35602608679917,45,-3.5,-12.0
43.95631875489464,-2.3036530514015228,-9.35602608679917,45,-3.0,-12.0
42.99753132213747,-1.877312760262803,-9.14811439598141,44,-2.5,-12.0
43.0122765443405,-1.502021794520222,-9.14811439598141,44,-2.0,-12.0
43.02374621515589,-1.1266164440026751,-9.14811439598141,44,-1.5,-12.0
43.031939461123784,-0.751125297281044,-9.14811439598141,44,-1.0,-12.0
44.01496601416717,-0.3841127892203782,-9.35602608679917,45,-0.5,-12.0
43.03849443228745,0.0,-9.14811439598141,44,0.0,-12.0
43.03685565829679,0.37557694945992537,-9.14811439598141,44,0.5,-12.0
43.031939461123784,0.751125297281044,-9.14811439598141,44,1.0,-12.0
43.02374621515589,1.1266164440026751,-9.14811439598141,44,1.5,-12.0
43.0122765443405,1.502021794520222,-9.14811439598141,44,2.0,-12.0
42.99753132213747,1.877312760262803,-9.14811439598141,44,2.5,-12.0
42.979511671452535,2.252460761370378,-9.14811439598141,44,3.0,-12.0
42.958218964551875,2.627437228870218,-9.14811439598141,44,3.5,-12.0
42.933654822957564,3.0022136068525427,-9.14811439598141,44,4.0,-12.0
37.055027328598065,2.9162938971935497,-7.900644251074855,38,4.5,-12.0
26.30948725265883,2.301781877787455,-5.613615652079503,27,5.0,-12.0
26.288398886734996,2.5312849074409463,-5.613615652079503,27,5.5,-12.0
24.319730145792835,2.5561066388411744,-5.197792270443983,25,6.0,-12.0
25.268358096453916,2.878965750503286,-5.405703961261743,26,6.5,-12.0
25.24227255798381,3.0993613522234806,-5.405703961261743,26,7.0,-12.0
23.274705897903676,3.0641731620711115,-4.989880579626224,24,7.5,-12.0
23.247080052548792,3.267164034978521,-4.989880579626224,24,8.0,-12.0
23.217683852043177,3.4699061006953276,-4.989880579626224,24,8.5,-12.0
24.152624515647197,3.825399916279456,-5.197792270443983,25,9.0,-12.0
23.15358947476659,3.8745820723075357,-4.989880579626224,24,9.5,-12.0
23.1188961790306,4.0764851605609325,-4.989880579626224,24,10.0,-12.0
23.08244228984213,4.2780778086866,-4.989880579626224,24,10.5,-12.0
23.044230583305982,4.479344664623883,-4.989880579626224,24,11.0,-12.0
23.004263969391545,4.680270401122468,-4.989880579626224,24,11.5,-12.0
23.919318220532514,5.084208038447503,-5.197792270443983,25,12.0,-12.0
23.874039924258934,5.292747226932662,-5.197792270443983,25,12.5,-12.0
25.733099009606057,5.940954020402771,-5.613615652079503,27,13.0,-12.0
40.898216100496484,9.818792969997618,-8.940202705163651,43,13.5,-12.0
41.76006721300178,10.411954156814726,-9.14811439598141,44,14.0,-12.0
42.61460812163737,11.02088701069076,-9.35602608679917,45,14.5,-12.0
42.51681132621619,11.392345259606039,-9.35602608679917,45,15.0,-12.0
42.415776711001996,11.762935937322542,-9.35602608679917,45,15.5,-12.0
42.31151197017191,12.132630821925362,-9.35602608679917,45,16.0,-12.0
42.2040250438896,12.501401759717702,-9.35602608679917,45,16.5,-12.0
42.09332411770068,12.869220667364894,-9.35602608679917,45,17.0,-12.0
41.97941762190927,13.23605953403305,-9.35602608679917,45,17.5,-12.0
42.79258788051238,13.904154655156029,-9.56393777761693,46,18.0,-12.0
42.66962337071661,14.277056264758052,-9.56393777761693,46,18.5,-12.0
42.54340940389899,14.64887062124964,-9.56393777761693,46,19.0,-12.0
42.41395559174176,15.01956940952801,-9.56393777761693,46,19.5,-12.0
42.28127179265392,15.389124399445219,-9.56393777761693,46,20.0,-12.0
42.14536811102046,15.757507447957991,-9.56393777761693,46,20.5,-12.0
42.00625489643292,16.124690501270933,-9.56393777761693,46,21.0,-12.0
41.863942742901195,16.490645596972925,-9.56393777761693,46,21.5,-12.0
41.71844248804675,16.855344866166575,-9.56393777761693,46,22.0,-12.0
42.4734557603703,17.593081416799038,-9.77184946843469,47,22.5,-12.0
42.318311851811416,17.963057645598386,-9.77184946843469,47,23.0,-12.0
42.159945239963,18.33166591801122,-9.77184946843469,47,23.5,-12.0
41.9983679850557,18.698878163090463,-9.77184946843469,47,24.0,-12.0
42.72366882569162,19.47029761654666,-9.979761159252448,48,24.5,-12.0
42.55213379598067,19.84238585990192,-9.979761159252448,48,25.0,-12.0
42.62944274435745,-19.87843561457392,-9.569660852025464,48,-25.0,-11.5
41.017902360684204,-18.692935052635775,-9.170924983191071,46,-24.5,-11.5
11.63767491559564,-5.181426702718777,-2.5917831474235635,13,-24.0,-11.5
10.783797870136784,-4.688928763012832,-2.392415213006366,12,-23.5,-11.5
9.922279912835648,-4.211757942381165,-2.193047278589169,11,-23.0,-11.5
10.863988536016233,-4.500011393083749,-2.392415213006366,12,-22.5,-11.5
10.902844377786737,-4.405035064825233,-2.392415213006366,12,-22.0,-11.5
10.940869925745792,-4.309723276091745,-2.392415213006366,12,-21.5,-11.5
10.978062284100702,-4.2140832852450085,-2.392415213006366,12,-21.0,-11.5
11.014418620509382,-4.118122375640614,-2.392415213006366,12,-20.5,-11.5
11.049936166296055,-4.021847855073356,-2.392415213006366,12,-20.0,-11.5
10.160894531940254,-3.5981614672856574,-2.193047278589169,11,-19.5,-11.5
11.118444130892017,-3.8283873310845347,-2.392415213006366,12,-19.0,-11.5
11.151429332554564,-3.7312160604308846,-2.392415213006366,12,-18.5,-11.5
10.251601533890678,-3.3309472562925557,-2.193047278589169,11,-18.0,-11.5
11.214849615046015,-3.5360285010839427,-2.392415213006366,12,-17.5,-11.5
11.245279866174863,-3.4380270766789947,-2.392415213006366,12,-17.0,-11.5
11.274853745704034,-3.3397638332012938,-2.392415213006366,12,-16.5,-11.5
12.245533084923773,-3.5113501082587124,-2.5917831474235635,13,-16.0,-11.5
12.275708733913248,-3.404355327643868,-2.5917831474235635,13,-15.5,-11.5
12.304949540155297,-3.297101292190326,-2.5917831474235635,13,-15.0,-11.5
11.384541486322444,-2.9442426181921277,-2.392415213006366,12,-14.5,-11.5
12.36061778855617,-3.0818481471286026,-2.5917831474235635,13,-14.0,-11.5
11.434191684334474,-2.745106550659202,-2.392415213006366,12,-13.5,-11.5
12.412520873038654,-2.8656562412667292,-2.5917831474235635,13,-13.0,-11.5
12.437055493193448,-2.757228821835044,-2.5917831474235635,13,-12.5,-11.5
24.921285966840838,-5.297182857507062,-5.183566294847127,26,-12.0,-11.5
23.046058241429282,-4.688773541871285,-4.784830426012732,24,-11.5,-11.5
44.248353478235536,-8.601008627934464,-9.170924983191071,46,-11.0,-11.5
44.32172564363311,-8.214546300508458,-9.170924983191071,46,-10.5,-11.5
44.39172253802438,-7.827458403577754,-9.170924983191071,46,-10.0,-11.5
44.458338830874844,-7.4397744153843846,-9.170924983191071,46,-9.5,-11.5
43.55370924368075,-6.898229862617958,-8.971557048773873,45,-9.0,-11.5
43.61224849966085,-6.5178942093613115,-8.971557048773873,45,-8.5,-11.5
43.66746651406603,-6.1370621932255665,-8.971557048773873,45,-8.0,-11.5
44.69090039476024,-5.8836686563997205,-9.170924983191071,46,-7.5,-11.5
44.74054274560453,-5.4934478955766854,-9.170924983191071,46,-7.0,-11.5
44.78677793089868,-5.102808787427652,-9.170924983191071,46,-6.5,-11.5
43.85504585509663,-4.609351057141105,-8.971557048773873,45,-6.0,-11.5
43.89359965495445,-4.226472932739373,-8.971557048773873,45,-5.5,-11.5
43.92881078725757,-3.8432729460603574,-8.971557048773873,45,-5.0,-11.5
43.96067657054192,-3.4597802792666634,-8.971557048773873,45,-4.5,-11.5
43.01165692081353,-3.007668044880516,-8.772189114356676,44,-4.0,-11.5
43.03626569067404,-2.632210771134017,-8.772189114356676,44,-3.5,-11.5
44.036178834150554,-2.307838340808693,-8.971557048773873,45,-3.0,-11.5
43.07564947116495,-1.8807234723076107,-8.772189114356676,44,-2.5,-11.5
43.090421482567976,-1.5047506758950107,-8.772189114356676,44,-2.0,-11.5
42.122323082645025,-1.103011848554095,-8.57282117993948,43,-1.5,-11.5
43.11012012304553,-0.7524899458110192,-8.772189114356676,44,-1.0,-11.5
44.094932644083066,-0.3848106474273268,-8.971557048773873,45,-0.5,-11.5
43.1166870033165,0.0,-8.772189114356676,44,0.0,-11.5
43.11504525199233,0.3762592997067195,-8.772189114356676,44,0.5,-11.5
43.11012012304553,0.7524899458110192,-8.772189114356676,44,1.0,-11.5
43.10191199154375,1.1286632868925621,-8.772189114356676,44,1.5,-11.5
42.111093721600525,1.4705517968973967,-8.57282117993948,43,2.0,-11.5
43.07564947116495,1.8807234723076107,-8.772189114356676,44,2.5,-11.5
43.05759708228054,2.2565530443462776,-8.772189114356676,44,3.0,-11.5
42.058168743158724,2.5723877990627892,-8.57282117993948,43,3.5,-11.5
42.034119263522314,2.9393119529514133,-8.57282117993948,43,4.0,-11.5
42.006868722962274,3.3060122668548115,-8.57282117993948,43,4.5,-11.5
28.30967806289932,2.4767758985722303,-5.781670098098719,29,5.0,-11.5
25.360746467307013,2.441962138916082,-5.183566294847127,26,5.5,-11.5
25.338470938500272,2.663180610792639,-5.183566294847127,26,6.0,-11.5
24.34064017983624,2.7732656453411155,-4.98419836042993,25,6.5,-11.5
24.31551236174159,2.98556950846559,-4.98419836042993,25,7.0,-11.5
23.31699151030969,3.069740168556376,-4.784830426012732,24,7.5,-11.5
23.289315474168543,3.2730998363869683,-4.784830426012732,24,8.0,-11.5
24.229026944256027,3.6210523385340614,-4.98419836042993,25,8.5,-11.5
23.228644929963064,3.6790559267295775,-4.784830426012732,24,9.0,-11.5
23.19565504219557,3.8816214341135917,-4.784830426012732,24,9.5,-11.5
23.16089871549098,4.083891340997089,-4.784830426012732,24,10.0,-11.5
24.087894371539733,4.464427337232857,-4.98419836042993,25,10.5,-11.5
24.048018194693228,4.674461210833948,-4.98419836042993,25,11.0,-11.5
24.006310668155503,4.8841391061159225,-4.98419836042993,25,11.5,-11.5
23.962774968116193,5.093445055295252,-4.98419836042993,25,12.0,-11.5
23.9174144099874,5.302363118913546,-4.98419836042993,25,12.5,-11.5
31.50870683155966,7.274358150907852,-6.5791418357675076,33,13.0,-11.5
29.53832851786406,7.091525255869606,-6.180405966933113,31,13.5,-11.5
42.78675388346367,10.667935893906701,-8.971557048773873,45,14.0,-11.5
42.69203057370917,11.040909818220479,-8.971557048773873,45,14.5,-11.5
41.64752152052562,11.159419758182644,-8.772189114356676,44,15.0,-11.5
42.492837925084324,11.784306903382621,-8.971557048773873,45,15.5,-11.5
42.38838375550537,12.154673451664774,-8.971557048773873,45,16.0,-11.5
42.280701546390134,12.524114374504853,-8.971557048773873,45,16.5,-11.5
42.16979949815575,12.892601537546232,-8.971557048773873,45,17.0,-11.5
42.05568605642256,13.260106879064788,-8.971557048773873,45,17.5,-11.5
41.93836991137096,13.62660241210591,-8.971557048773873,45,18.0,-11.5
42.74714577479249,14.302994898318392,-9.170924983191071,46,18.5,-11.5
41.694165490845066,14.356452491567007,-8.971557048773873,45,19.0,-11.5
41.56729581248286,14.719751457077692,-8.971557048773873,45,19.5,-11.5
41.43726062361021,15.081929456525089,-8.971557048773873,45,20.0,-11.5
42.22193804528597,15.786135773289022,-9.170924983191071,46,20.5,-11.5
42.0825720890527,16.153985926772535,-9.170924983191071,46,21.0,-11.5
41.94000138202554,16.520605891685022,-9.170924983191071,46,21.5,-11.5
41.79423678151583,16.88596774849673,-9.170924983191071,46,22.0,-11.5
41.64528938806223,17.25004367348771,-9.170924983191071,46,22.5,-11.5
41.493170544585446,17.612805940866693,-9.170924983191071,46,23.0,-11.5
42.23654165803574,18.364970988466926,-9.370292917608268,47,23.5,-11.5
42.07467084869193,18.732850386752503,-9.370292917608268,47,24.0,-11.5
41.90959589026429,19.099303205953944,-9.370292917608268,47,24.5,-11.5
42.62944274435745,19.87843561457392,-9.569660852025464,48,25.0,-11.5
42.703505295622655,-19.91297154941138,-9.15883177807415,48,-25.0,-11.0
41.9824078107189,-19.13248550982086,-8.968022782697606,47,-24.5,-11.0
14.348176872593816,-6.388219925559289,-3.052943926024717,16,-24.0,-11.0
11.70274427232267,-5.088498030609083,-2.4805169398950824,13,-23.5,-11.0
10.843111039733085,-4.602627565731038,-2.2897079445185375,12,-23.0,-11.0
10.882863160127988,-4.507829518375533,-2.2897079445185375,12,-22.5,-11.0
10.92178650835853,-4.412688182349432,-2.2897079445185375,12,-22.0,-11.0
10.959878120261044,-4.317210803033828,-2.2897079445185375,12,-21.5,-11.0
10.080707170427488,-3.869620930450744,-2.0988989491419927,11,-21.0,-11.0
11.033554595347942,-4.125277023459759,-2.2897079445185375,12,-20.5,-11.0
11.069133847783501,-4.028835239701711,-2.2897079445185375,12,-20.0,-11.0
11.103870142820657,-3.9320866445418887,-2.2897079445185375,12,-19.5,-11.0
11.137760835156055,-3.8350386057603933,-2.2897079445185375,12,-19.0,-11.0
11.170803343882262,-3.7376985139411127,-2.2897079445185375,12,-18.5,-11.0
10.269412223293948,-3.3367343000831644,-2.0988989491419927,11,-18.0,-11.0
11.234333810031318,-3.5421718441650913,-2.2897079445185375,12,-17.5,-11.0
10.3260821852496,-3.1570001432944936,-2.0988989491419927,11,-17.0,-11.0
11.294442189272404,-3.345566194531548,-2.2897079445185375,12,-16.5,-11.0
11.323207333680681,-3.2468774549232298,-2.2897079445185375,12,-16.0,-11.0
11.35111017201092,-3.1479414530259224,-2.2897079445185375,12,-15.5,-11.0
12.326327627633445,-3.3028295334658178,-2.4805169398950824,13,-15.0,-11.0
11.404320496630366,-2.9493578180589126,-2.2897079445185375,12,-14.5,-11.0
10.47715526985173,-2.612248198910038,-2.0988989491419927,11,-14.0,-11.0
12.408561700979607,-2.9790320951402376,-2.4805169398950824,13,-13.5,-11.0
11.47761770797018,-2.6498168386698073,-2.2897079445185375,12,-13.0,-11.0
12.458663095844429,-2.762019112015276,-2.4805169398950824,13,-12.5,-11.0
14.402644114566238,-3.0613765119491796,-2.862134930648172,15,-12.0,-11.0
34.62914620035824,-7.045379421542347,-6.869123833555613,36,-11.5,-11.0
43.36163672775272,-8.42864835185802,-8.586404791944517,45,-11.0,-11.0
45.3639180395856,-8.407705243809199,-8.968022782697606,47,-10.5,-11.0
43.50213273720584,-7.670599719930376,-8.586404791944517,45,-10.0,-11.0
44.535578827150964,-7.452699957886669,-8.777213787321061,46,-9.5,-11.0
44.598919299515096,-7.063774872332858,-8.777213787321061,46,-9.0,-11.0
42.71717367882879,-6.384124381105568,-8.39559579656797,44,-8.5,-11.0
43.74333248296254,-6.147724459819789,-8.586404791944517,45,-8.0,-11.0
43.795315206631486,-5.765762629580292,-8.586404791944517,45,-7.5,-11.0
43.843962747487,-5.383361714193497,-8.586404791944517,45,-7.0,-11.0
42.913954258589804,-4.88942748308142,-8.39559579656797,44,-6.5,-11.0
43.931237716232566,-4.617359144439267,-8.586404791944517,45,-6.0,-11.0
43.96985849779587,-4.233815824133218,-8.586404791944517,45,-5.5,-11.0
44.00513080439832,-3.849950082360278,-8.586404791944517,45,-5.0,-11.0
44.037051949917235,-3.465791151982878,-8.586404791944517,45,-4.5,-11.0
43.08638351446859,-3.0128934373422123,-8.39559579656797,44,-4.0,-11.0
44.090831289418155,-2.696710766273771,-8.586404791944517,45,-3.5,-11.0
43.132403490386466,-2.26047348207125,-8.39559579656797,44,-3.0,-11.0
44.13118013459085,-1.9268089363416327,-8.586404791944517,45,-2.5,-11.0
43.16528491836821,-1.5073649646799507,-8.39559579656797,44,-2.0,-11.0
44.15808619478621,-1.1563201817420676,-8.586404791944517,45,-1.5,-11.0
43.1850177824123,-0.7537972893182376,-8.39559579656797,44,-1.0,-11.0
43.18995146806525,-0.37691299635109393,-8.39559579656797,44,-0.5,-11.0
43.19159607169721,0.0,-8.39559579656797,44,0.0,-11.0
43.18995146806525,0.37691299635109393,-8.39559579656797,44,0.5,-11.0
42.2035401055393,0.7366655327428232,-8.204786801191426,43,1.0,-11.0
43.17679539045762,1.130624177703355,-8.39559579656797,44,1.5,-11.0
43.16528491836821,1.5073649646799507,-8.39559579656797,44,2.0,-11.0
43.15048724271106,1.8839909599784854,-8.39559579656797,44,2.5,-11.0
43.132403490386466,2.26047348207125,-8.39559579656797,44,3.0,-11.0
43.1110350385422,2.636783860356576,-8.39559579656797,44,3.5,-11.0
42.107147525503386,2.9444185864935255,-8.204786801191426,43,4.0,-11.0
42.07984964103203,3.311755989672528,-8.204786801191426,43,4.5,-11.0
26.403078482638996,2.309970049416167,-5.15184287516671,27,5.0,-11.0
26.381915098677524,2.5402894944799312,-5.15184287516671,27,5.5,-11.0
25.382492902712155,2.6678075056760213,-4.961033879790165,26,6.0,-11.0
25.358245698257615,2.8892071490935667,-4.961033879790165,26,6.5,-11.0
24.357757081937223,2.9907565078852767,-4.77022488441362,25,7.0,-11.0
24.33073067035083,3.2032014608779407,-4.77022488441362,25,7.5,-11.0
25.27392543460058,3.552018576784767,-4.961033879790165,26,8.0,-11.0
25.24196626476247,3.7724371342896545,-4.961033879790165,26,8.5,-11.0
25.208084821465057,3.992568406101181,-4.961033879790165,26,9.0,-11.0
24.20411892779944,4.050380411894929,-4.77022488441362,25,9.5,-11.0
24.167851520669913,4.2614442888502095,-4.77022488441362,25,10.0,-11.0
24.12974363807745,4.472183640324043,-4.77022488441362,25,10.5,-11.0
24.089798182084845,4.6825824176989,-4.77022488441362,25,11.0,-11.0
25.009938922480956,5.088329582225029,-4.961033879790165,26,11.5,-11.0
24.964583131914814,5.306385954045245,-4.961033879790165,26,12.0,-11.0
24.917326191688858,5.524038224030552,-4.961033879790165,26,12.5,-11.0
23.91170355827121,5.5204517472287655,-4.77022488441362,25,13.0,-11.0
34.36217086425122,8.24962734038835,-6.869123833555613,36,13.5,-11.0
41.90862107940692,10.448992795640152,-8.39559579656797,44,14.0,-11.0
41.815841820978,10.814311999549345,-8.39559579656797,44,14.5,-11.0
41.71987812429781,11.178807651730459,-8.39559579656797,44,15.0,-11.0
42.56666314504094,11.804780448847207,-8.586404791944517,45,15.5,-11.0
42.46202750130255,12.17579045596211,-8.586404791944517,45,16.0,-11.0
42.35415820977151,12.545873229493305,-8.586404791944517,45,16.5,-11.0
42.243063485112,12.915000586204746,-8.586404791944517,45,17.0,-11.0
42.12875178761744,13.28314441561909,-8.586404791944517,45,17.5,-11.0
42.011231822566145,13.650276682158399,-8.586404791944517,45,18.0,-11.0
41.89051253955847,14.016369427279171,-8.586404791944517,45,18.5,-11.0
42.69474986809821,14.700981322081505,-8.777213787321061,46,19.0,-11.0
42.56483554747918,15.072998804077239,-8.777213787321061,46,19.5,-11.0
42.43167974983675,15.443868418856555,-8.777213787321061,46,20.0,-11.0
43.2147554984461,16.15733500855072,-8.968022782697606,47,20.5,-11.0
41.23925660629426,15.830267442753044,-8.586404791944517,45,21.0,-11.0
42.01286612766733,16.549308078296338,-8.777213787321061,46,21.5,-11.0
41.866848282041026,16.915304699006153,-8.777213787321061,46,22.0,-11.0
42.62454737716794,17.6556656136375,-8.968022782697606,47,22.5,-11.0
42.46885157228791,18.026957965779896,-8.968022782697606,47,23.0,-11.0
42.3099215999358,18.39687749527899,-8.968022782697606,47,23.5,-11.0
42.14776956324433,18.76539603133041,-8.968022782697606,47,24.0,-11.0
41.9824078107189,19.13248550982086,-8.968022782697606,47,24.5,-11.0
42.703505295622655,19.91297154941138,-9.15883177807415,48,25.0,-11.0
42.774315809626245,-19.945991034369147,-8.747305223623078,48,-25.0,-10.5
41.15729872299473,-18.75646163486642,-8.382834172638784,46,-24.5,-10.5
10.778976654118154,-4.799109604684429,-2.1868263059057695,12,-24.0,-10.5
10.820445824041661,-4.70486374688767,-2.1868263059057695,12,-23.5,-10.5
10.86109097512261,-4.610259595500967,-2.1868263059057695,12,-23.0,-10.5
11.809318096414993,-4.891579717913112,-2.369061831397917,13,-22.5,-10.5
10.028238827385435,-4.051671485202116,-2.004590780413622,11,-22.0,-10.5
10.97805167762454,-4.324369557658499,-2.1868263059057695,12,-21.5,-10.5
11.01537043150828,-4.228404541248578,-2.1868263059057695,12,-21.0,-10.5
11.051850322285922,-4.132117515461907,-2.1868263059057695,12,-20.5,-10.5
11.087488571872543,-4.03551581292829,-2.1868263059057695,12,-20.0,-10.5
11.122282466277458,-3.938606790241385,-2.1868263059057695,12,-19.5,-10.5
11.156229355810899,-3.841397827398467,-2.1868263059057695,12,-19.0,-10.5
11.189326655285797,-3.743896327238415,-2.1868263059057695,12,-18.5,-10.5
10.286440857196768,-3.3422672386381302,-2.004590780413622,11,-18.0,-10.5
10.31521559475137,-3.252374984050711,-2.004590780413622,11,-17.5,-10.5
11.283496133128855,-3.4497109620176443,-2.1868263059057695,12,-17.0,-10.5
10.370406307561527,-3.071854296539602,-2.004590780413622,11,-16.5,-10.5
11.341983359815224,-3.2522613937801963,-2.1868263059057695,12,-16.0,-10.5
11.369932466345475,-3.1531613372204133,-2.1868263059057695,12,-15.5,-10.5
11.397015708497932,-3.0538211552168404,-2.1868263059057695,12,-15.0,-10.5
11.423231023778845,-2.9542484129089486,-2.1868263059057695,12,-14.5,-10.5
11.44857641579046,-2.8544506931465756,-2.1868263059057695,12,-14.0,-10.5
11.473049954383049,-2.754435595912464,-2.1868263059057695,12,-13.5,-10.5
12.454703923785383,-2.8753949658887845,-2.369061831397917,13,-13.0,-10.5
13.439269763300754,-2.9794143763424232,-2.5512973568900645,14,-12.5,-10.5
17.311831717381597,-3.6797434260566666,-3.2802394588586545,18,-12.0,-10.5
42.39469409390993,-8.625297996770303,-8.018363121654488,44,-11.5,-10.5
42.46834880301631,-8.255010768898767,-8.018363121654488,44,-11.0,-10.5
45.43914002268424,-8.421646814314558,-8.565069698130932,47,-10.5,-10.5
45.51090163934537,-8.024799875385698,-8.565069698130932,47,-10.0,-10.5
43.63965710870175,-7.3027740799886685,-8.200598647146636,45,-9.5,-10.5
43.70172336152406,-6.921672995832701,-8.200598647146636,45,-9.0,-10.5
43.76046155891429,-6.540044799479754,-8.200598647146636,45,-8.5,-10.5
44.789553166125316,-6.294761187914391,-8.382834172638784,46,-8.0,-10.5
43.86793614861887,-5.7753233579700805,-8.200598647146636,45,-7.5,-10.5
43.91666435632711,-5.392288349311865,-8.200598647146636,45,-7.0,-10.5
43.962048140014346,-5.008842697018758,-8.200598647146636,45,-6.5,-10.5
43.02621550922907,-4.522237477473709,-8.018363121654488,44,-6.0,-10.5
44.04276886567646,-4.2408362940601725,-8.200598647146636,45,-5.5,-10.5
44.07809966045554,-3.85633403005574,-8.200598647146636,45,-5.0,-10.5
43.12984987646152,-3.394392800367081,-8.018363121654488,44,-4.5,-10.5
43.157828913203296,-3.0178893863037635,-8.018363121654488,44,-4.0,-10.5
44.163942253139666,-2.7011824243767055,-8.200598647146636,45,-3.5,-10.5
43.20392519897272,-2.2642217759887844,-8.018363121654488,44,-3.0,-10.5
43.22203893758973,-1.8871149744435904,-8.018363121654488,44,-2.5,-10.5
43.23686115060071,-1.5098644617868298,-8.018363121654488,44,-2.0,-10.5
43.24839070923676,-1.1324989671056265,-8.018363121654488,44,-1.5,-10.5
44.23973188855638,-0.7722073925216895,-8.200598647146636,45,-1.0,-10.5
43.26156860211719,-0.37753798961151824,-8.018363121654488,44,-0.5,-10.5
43.263215932814006,0.0,-8.018363121654488,44,0.0,-10.5
44.244786070347125,0.38611839846632545,-8.200598647146636,45,0.5,-10.5
42.27352158239831,0.7378870639651699,-7.836127596162341,43,1.0,-10.5
43.24839070923676,1.1324989671056265,-8.018363121654488,44,1.5,-10.5
44.21951708584164,1.544179563191076,-8.200598647146636,45,2.0,-10.5
43.22203893758973,1.8871149744435904,-8.018363121654488,44,2.5,-10.5
43.20392519897272,2.2642217759887844,-8.018363121654488,44,3.0,-10.5
43.18252131418101,2.6411561482794457,-8.018363121654488,44,3.5,-10.5
43.157828913203296,3.0178893863037635,-8.018363121654488,44,4.0,-10.5
30.386939685688798,2.3915040184404432,-5.649301290256572,31,4.5,-10.5
26.446859796273323,2.313800418033444,-4.920359188287982,27,5.0,-10.5
26.42566131940587,2.5445017764361033,-4.920359188287982,27,5.5,-10.5
25.424581891817173,2.6722312366890097,-4.738123662795834,26,6.0,-10.5
25.400294480897177,2.8939980027219487,-4.738123662795834,26,6.5,-10.5
24.398146864626174,2.995715749617703,-4.555888137303687,25,7.0,-10.5
24.371075638121596,3.2085129766500446,-4.555888137303687,25,7.5,-10.5
24.342148459850716,3.4210658629969517,-4.555888137303687,25,8.0,-10.5
24.31136753273016,3.633358221933197,-4.555888137303687,25,8.5,-10.5
24.2787352008467,3.8453738865737224,-4.555888137303687,25,9.0,-10.5
24.244253949278747,4.0570967111048155,-4.555888137303687,25,9.5,-10.5
24.207926403907113,4.268510572013669,-4.555888137303687,25,10.0,-10.5
24.169755331215026,4.479599369316254,-4.555888137303687,25,10.5,-10.5
24.12974363807745,4.690347027783391,-4.555888137303687,25,11.0,-10.5
24.087894371539736,4.900737498164945,-4.555888137303687,25,11.5,-10.5
25.005979147328976,5.315184948748518,-4.738123662795834,26,12.0,-10.5
24.95864384612997,5.533198127493072,-4.738123662795834,26,12.5,-10.5
23.951353699587276,5.529605703632278,-4.555888137303687,25,13.0,-10.5
27.726537389759034,6.656552690121789,-5.284830239272277,29,13.5,-10.5
41.02406548991582,10.228448317108562,-7.836127596162341,43,14.0,-10.5
41.88518042052244,10.832244180666146,-8.018363121654488,44,14.5,-10.5
41.78905759782575,11.197344235795082,-8.018363121654488,44,15.0,-10.5
42.63724674879553,11.82435501457655,-8.200598647146636,45,15.5,-10.5
41.58727231932249,11.92495844386072,-8.018363121654488,44,16.0,-10.5
42.42438944002443,12.566676667662009,-8.200598647146636,45,16.5,-10.5
42.31311049923321,12.936416107566167,-8.200598647146636,45,17.0,-10.5
42.198609251255604,13.305170389298361,-8.200598647146636,45,17.5,-10.5
42.080894415804956,13.67291143079235,-8.200598647146636,45,18.0,-10.5
41.95997495732174,14.039611227144057,-8.200598647146636,45,18.5,-10.5
42.76554586394178,14.72535833836079,-8.382834172638784,46,19.0,-10.5
42.63541612073026,15.09799269592531,-8.382834172638784,46,19.5,-10.5
42.50203952551142,15.469477282891782,-8.382834172638784,46,20.0,-10.5
42.36542623542937,15.839783809270644,-8.382834172638784,46,20.5,-10.5
43.1435341900741,16.561251119890265,-8.565069698130932,47,21.0,-10.5
42.99736907069612,16.93711410082912,-8.565069698130932,47,21.5,-10.5
41.93627145997546,16.943353483572483,-8.382834172638784,46,22.0,-10.5
42.6952269639619,17.684942057070483,-8.565069698130932,47,22.5,-10.5
42.539272985896886,18.056850082378787,-8.565069698130932,47,23.0,-10.5
43.281783296166644,18.81945498755068,-8.747305223623078,48,23.5,-10.5
42.217658561962764,18.79651261834735,-8.565069698130932,47,24.0,-10.5
42.05202260827723,19.164210800841776,-8.565069698130932,47,24.5,-10.5
42.774315809626245,19.945991034369147,-8.747305223623078,48,25.0,-10.5
42.84186889387344,-19.977491554885603,-8.335112528012656,48,-25.0,-10.0
41.22229806700284,-18.786083542523308,-7.987816172678795,46,-24.5,-10.0
10.795999792986228,-4.806688794422487,-2.083778132003164,12,-24.0,-10.0
11.740662326021491,-5.104985269591763,-2.257426309670094,13,-23.5,-10.0
10.878243796383956,-4.617540536153352,-2.083778132003164,12,-23.0,-10.0
10.918124717596914,-4.52243533370956,-2.083778132003164,12,-22.5,-10.0
10.957174181341388,-4.426985730305785,-2.083778132003164,12,-22.0,-10.0
10.995389213849531,-4.331198994798876,-2.083778132003164,12,-21.5,-10.0
11.032766904898656,-4.235082421719594,-2.083778132003164,12,-21.0,-10.0
11.069304408032881,-4.138643330717109,-2.083778132003164,12,-20.5,-10.0
11.104998940779879,-4.041889066001581,-2.083778132003164,12,-20.0,-10.0
11.139847784862786,-3.944826995784868,-2.083778132003164,12,-19.5,-10.0
11.173848286407202,-3.8474645117194073,-2.083778132003164,12,-19.0,-10.0
10.273081368131352,-3.437324942640705,-1.9101299543362336,11,-18.5,-10.0
10.302686138802734,-3.347545650602759,-1.9101299543362336,11,-18.0,-10.0
11.270734167312192,-3.553648832730513,-2.083778132003164,12,-17.5,-10.0
11.301316054978138,-3.455159058868166,-2.083778132003164,12,-17.0,-10.0
10.38678419503237,-3.0767056478274357,-1.9101299543362336,11,-16.5,-10.0
12.306553620838363,-3.5288474653687505,-2.257426309670094,13,-16.0,-10.0
12.336879637660756,-3.421319520635374,-2.257426309670094,13,-15.5,-10.0
11.415014910770372,-3.0586440269301454,-2.083778132003164,12,-15.0,-10.0
12.394710929962862,-3.205490199496546,-2.257426309670094,13,-14.5,-10.0
11.46665704741455,-2.858958700919553,-2.083778132003164,12,-14.0,-10.0
12.44876667324544,-2.9886844549906697,-2.257426309670094,13,-13.5,-10.0
12.474373523345593,-2.8799360507594143,-2.257426309670094,13,-13.0,-10.0
12.49903040160544,-2.7709683282477675,-2.257426309670094,13,-12.5,-10.0
34.6783442685459,-7.371109622131434,-6.251334396009492,36,-12.0,-10.0
34.74134807323647,-7.068207150579068,-6.251334396009492,36,-11.5,-10.0
43.50213273720584,-8.455958009608134,-7.814167995011865,45,-11.0,-10.0
44.54258458318909,-8.255480085430353,-7.987816172678795,46,-10.5,-10.0
44.61293027807589,-7.86646329649038,-7.987816172678795,46,-10.0,-10.0
44.679878525596045,-7.476847445914132,-7.987816172678795,46,-9.5,-10.0
43.77074109200343,-6.932604330447146,-7.814167995011865,45,-9.0,-10.0
44.8035625441804,-6.695937286236037,-7.987816172678795,46,-8.5,-10.0
43.88506522457061,-6.167643697630044,-7.814167995011865,45,-8.0,-10.0
44.91359896359195,-5.912987479195553,-7.987816172678795,46,-7.5,-10.0
43.98602154114621,-5.400804340795339,-7.814167995011865,45,-7.0,-10.0
44.031476999026346,-5.016753116303979,-7.814167995011865,45,-6.5,-10.0
44.073579289458216,-4.632319846639662,-7.814167995011865,45,-6.0,-10.0
44.1123252061894,-4.247533807884268,-7.814167995011865,45,-5.5,-10.0
44.14771179856831,-3.8624243029844076,-7.814167995011865,45,-5.0,-10.0
44.179736371768946,-3.4770206595198916,-7.814167995011865,45,-4.5,-10.0
44.208396486996065,-3.0913522274703205,-7.814167995011865,45,-4.0,-10.0
43.25071907363381,-2.6453273019359713,-7.640519817344934,44,-3.5,-10.0
44.25561486959754,-2.319338496121144,-7.814167995011865,45,-3.0,-10.0
44.27416954110923,-1.933051988656154,-7.814167995011865,45,-2.5,-10.0
44.289352563195955,-1.5466182717981123,-7.814167995011865,45,-2.0,-10.0
43.31669249562042,-1.1342875123269043,-7.640519817344934,44,-1.5,-10.0
44.309599290963035,-0.7734269325670636,-7.814167995011865,45,-1.0,-10.0
44.31466145477668,-0.38672819170807066,-7.814167995011865,45,-0.5,-10.0
43.331541132537154,0.0,-7.640519817344934,44,0.0,-10.0
43.32989120022609,0.37813423189233575,-7.640519817344934,44,0.5,-10.0
44.309599290963035,0.7734269325670636,-7.814167995011865,45,1.0,-10.0
43.31669249562042,1.1342875123269043,-7.640519817344934,44,1.5,-10.0
43.305144728458274,1.5122489768692655,-7.640519817344934,44,2.0,-10.0
43.29029910686236,1.8900952777971283,-7.640519817344934,44,2.5,-10.0
43.27215676138426,2.2677976406517852,-7.640519817344934,44,3.0,-10.0
43.25071907363381,2.6453273019359713,-7.640519817344934,44,3.5,-10.0
42.24357886535179,2.953958795138306,-7.466871639678004,43,4.0,-10.0
41.23442061365102,3.245219282218566,-7.293223462011074,42,4.5,-10.0
26.488627079140983,2.3174545817906447,-4.688500797007119,27,5.0,-10.0
25.487121230242764,2.454130644555355,-4.514852619340188,26,5.5,-10.0
25.46473470057586,2.6764514669473605,-4.514852619340188,26,6.0,-10.0
25.44040893277078,2.8985684671978547,-4.514852619340188,26,6.5,-10.0
25.41414577932892,3.1204647302373076,-4.514852619340188,26,7.0,-10.0
24.409564654126058,3.2135801517367133,-4.341204441673258,25,7.5,-10.0
24.380591791428117,3.4264687209055804,-4.341204441673258,25,8.0,-10.0
25.323752742362835,3.784660205263847,-4.514852619340188,26,8.5,-10.0
24.31707838444635,3.8514468502484145,-4.341204441673258,25,9.0,-10.0
24.28254267695437,4.063504046692462,-4.341204441673258,25,9.5,-10.0
24.246157759823852,4.2752517915708586,-4.341204441673258,25,10.0,-10.0
24.207926403907113,4.486673959473018,-4.341204441673258,25,10.5,-10.0
24.167851520669913,4.697754449782297,-4.341204441673258,25,11.0,-10.0
24.125936161969772,4.908477187902131,-4.341204441673258,25,11.5,-10.0
25.045470860616483,5.323579171539369,-4.514852619340188,26,12.0,-10.0
24.99806080321088,5.541936656495535,-4.514852619340188,26,12.5,-10.0
24.948747046691185,5.759872101518829,-4.514852619340188,26,13.0,-10.0
26.81272821929787,6.437166518441442,-4.862148974674049,28,13.5,-10.0
26.75553311063395,6.670903635478957,-4.862148974674049,28,14.0,-10.0
41.95132930141276,10.849351444449848,-7.640519817344934,44,14.5,-10.0
42.8063059153889,11.469915100988045,-7.814167995011865,45,15.0,-10.0
41.755592619774866,11.57985068522742,-7.640519817344934,44,15.5,-10.0
41.65295071668369,11.94379142124808,-7.640519817344934,44,16.0,-10.0
41.54713678012948,12.306822591309743,-7.640519817344934,44,16.5,-10.0
