X,Y,Z,Distance,Pan,Tilt
2.3302536642783416,-1.0866151290967379,-3.064177772475912,4,-25,-50
140.7373062383275,-51.224190321558325,-178.48835524672188,233,-20,-50
123.55614544995429,-33.10676939321758,-152.44284418067662,199,-15,-50
118.37515543162445,-20.872733748153586,-143.2503108632489,187,-10,-50
114.62114796961464,-10.028051047668763,-137.12195531829707,179,-5,-50
109.91668125639823,0.0,-130.99359977334524,171,0,-50
106.29670705562029,9.299756837502875,-127.16337755775035,166,5,-50
103.18262211419672,18.193880218978794,-124.86524422839342,163,10,-50
100.583394788405,26.951239405533915,-124.09919978527444,162,15,-50
97.8516893159187,35.61510228365858,-124.09919978527444,162,20,-50
94.95783681934242,44.279566510692064,-124.86524422839342,163,25,-50
105.7413030392051,-49.307979390469775,-116.67261889578033,165,-25,-45
133.55706790212363,-48.61079729224303,-142.12846301849603,201,-20,-45
123.6252990424917,-33.1252990424917,-127.98632739476508,181,-15,-45
118.38192085440322,-20.873926674725382,-120.20815280171307,170,-10,-45
113.41098025084416,-9.922175091311317,-113.84419177103415,161,-5,-45
103.23759005323595,0.0,-103.23759005323593,146,0,-45
101.43590780199726,8.874492007135588,-101.82337649086284,144,5,-45
100.27645060608273,17.68144377153209,-101.82337649086284,144,10,-45
94.9387655630185,25.438765563018485,-98.2878425849301,139,15,-45
91.69589736563712,33.37457724542059,-97.58073580374355,138,20,-45
88.43818072369882,41.23940094475654,-97.58073580374355,138,25,-45
98.5866302501135,-45.97170067732317,-91.27584057548857,142,-25,-40
136.05095266426835,-49.51849711335375,-121.48685823075591,189,-20,-40
117.65079575932184,-31.524435712589238,-102.20322994015974,159,-15,-40
113.91538251705883,-20.08635545548284,-97.06092906266743,151,-10,-40
110.6537648469766,-9.680950000573853,-93.2042034045482,145,-5,-40
105.71413315041896,0.0,-88.70469013674241,138,0,-40
103.0224707195989,9.013298276396345,-86.7763273076828,135,5,-40
99.58165888908454,17.558933245852547,-84.84796447862318,132,10,-40
96.93241663189409,25.972962756913144,-84.20517686893665,131,15,-40
94.299866661477,34.32234456004942,-84.20517686893665,131,20,-40
91.64390980996467,42.73425696765253,-84.84796447862318,132,25,-40
99.48211945181794,-46.38927414987305,-76.85924247104018,134,-25,-35
129.31819006176963,-47.06797193166357,-96.36084130697574,168,-20,-35
132.92833935968562,-35.61804118263798,-96.36084130697574,168,-15,-35
111.32560520740063,-19.62970784176352,-79.15354821644435,138,-10,-35
109.34867974252892,-9.566769848998133,-76.85924247104018,134,-5,-35
109.7663739347249,0.0,-76.85924247104018,134,0,-35
102.82040035491525,8.995619410251978,-72.2706309802318,126,5,-35
100.03170322983824,17.63828820564258,-71.1234781075297,124,10,-35
97.32253417405553,26.077494437288518,-70.54990167117866,123,15,-35
94.67938915236704,34.46047944996796,-70.54990167117866,123,20,-35
92.0580806867569,42.927388019285516,-71.1234781075297,124,25,-35
98.11069590267448,-45.74976884633335,-62.49999999999999,125,-25,-30
25.227728121830587,-9.182142114506739,-15.499999999999998,31,-20,-30
23.422456504658626,-6.276028305176375,-13.999999999999998,28,-15,-30
23.027450362715967,-4.060360795871753,-13.499999999999998,27,-10,-30
73.33204283133979,-6.415722420939733,-42.49999999999999,85,-5,-30
107.3871500692704,0.0,-61.99999999999999,124,0,-30
105.25304971086416,9.208448651231146,-60.99999999999999,122,5,-30
101.49135530234075,17.8956642484718,-59.49999999999999,119,10,-30
98.70892384106135,26.44897642895758,-58.99999999999999,118,15,-30
96.02812639922611,34.95137966167081,-58.99999999999999,118,20,-30
93.40138249934611,43.55377994170935,-59.49999999999999,119,25,-30
97.74586277634909,-45.57964436557919,-50.29157314714323,119,-25,-25
101.34643801705845,-36.887086787113915,-50.29157314714323,119,-20,-25
25.387356843902197,-6.802521764284329,-12.255929590480283,29,-15,-25
24.09855125280381,-4.249224781855092,-11.410693066998885,27,-10,-25
45.14295061425867,-3.949496416858281,-21.130913087034973,50,-5,-25
102.41277993514144,0.0,-47.755863576699035,113,0,-25
105.6345044373653,9.241821615448378,-49.446336623661836,117,5,-25
102.64197755823845,18.098549996790204,-48.60110010018044,115,10,-25
99.79857517947761,26.74094762511771,-48.17848183843974,114,15,-25
97.08818431886272,35.33720919101669,-48.17848183843974,114,20,-25
93.63889375213274,43.66453325778175,-48.17848183843974,114,25,-25
98.791485798141,-46.06722638818393,-39.67433662577757,116,-25,-20
28.25671108990365,-10.28460175498463,-10.944644586421399,32,-20,-20
25.414854393330323,-6.80988971044743,-9.576564013118723,28,-15,-20
24.060831038356408,-4.242573690329905,-8.892523726467386,26,-10,-20
23.40292016657148,-2.0474902079772335,-8.550503583141717,25,-5,-20
89.2707989746613,0.0,-32.49191361593853,95,0,-20
86.12274621298305,7.534763965356219,-31.46585318596152,92,5,-20
102.72124020221389,18.112526139485364,-37.964235909149224,111,10,-20
99.84407083094055,26.753138148186334,-37.62221576582356,110,15,-20
97.1324443715438,35.353318532759666,-37.62221576582356,110,20,-20
94.53323209994527,44.08157007834842,-37.964235909149224,111,25,-20
97.17229688528083,-45.312186198117566,-28.728914006379803,111,-25,-15
29.0455478780918,-10.571714865579269,-8.282209443280664,32,-20,-15
26.124355652982143,-6.999999999999999,-7.246933262870581,28,-15,-15
25.68378354923334,-4.528744006406057,-6.98811421776806,27,-10,-15
24.056254672476456,-2.1046495707342294,-6.4704761275630185,25,-5,-15
85.001472713438,0.0,-22.776075969021825,88,0,-15
84.67801644711712,7.408366488984488,-22.776075969021825,88,5,-15
78.95385313282841,13.921694538211213,-21.481980743509222,83,10,-15
100.7653718043597,27.0,-27.95245687107224,108,15,-15
98.02872408855983,35.67953767133003,-27.95245687107224,108,20,-15
95.42144468914964,44.4957504107641,-28.21127591617476,109,25,-15
98.1792828817933,-45.78175147994618,-19.101299543362337,110,-25,-10
30.53874708714467,-11.11519493150435,-5.730389863008701,33,-20,-10
27.586286034361734,-7.391723065081185,-5.0357971523409795,29,-15,-10
26.18585038060976,-4.617271934896527,-4.688500797007119,27,-10,-10
25.50756681695058,-2.2316229306132134,-4.514852619340188,26,-5,-10
83.70865900603768,0.0,-14.760095101689078,85,0,-10
85.3522428105654,7.467353652436522,-15.107391457022938,87,5,-10
14.547694655894313,2.5651510749425155,-2.6047226650039548,15,10,-10
66.58758697949385,17.842090157092514,-12.155372436685123,70,15,-10
99.0195738886206,36.04017750518077,-18.580355010361547,107,20,-10
96.39420501121523,44.94935599849261,-18.754003188028477,108,25,-10
98.41163233908391,-45.89009781124895,-9.49997595949474,109,-25,-5
33.70020503986293,-12.265871523177962,-3.137606738915694,36,-20,-5
28.867505606971747,-7.735024814888986,-2.614672282429745,30,-15,-5
27.469687341331394,-4.843647029902505,-2.4403607969344288,28,-10,-5
25.802500789158707,-2.2574263096700946,-2.2660493114391125,26,-5,-5
25.901062150385386,0.0,-2.2660493114391125,26,0,-5
84.35432950301885,7.38004755084454,-7.408238133550944,85,5,-5
19.621205243808138,3.4597478785017888,-1.7431148549531632,20,10,-5
9.622501868990582,2.5783416049629952,-0.8715574274765816,10,15,-5
100.16449831292593,36.45689591611227,-9.325664473999424,107,20,-5
96.60591431451356,45.04807766792327,-9.325664473999424,107,25,-5
99.6938565740315,-46.488008791476936,0.0,110,-25,0
34.76862696907861,-12.654745303049742,0.0,37,-20,0
30.909626441250186,-8.282209443280664,0.0,32,-15,0
28.559424837354033,-5.0357971523409795,0.0,29,-10,0
27.893451546568876,-2.4403607969344288,0.0,28,-5,0
28.0,0.0,0.0,28,0,0
24.90486745229364,2.1788935686914543,0.0,25,5,0
15.756924048195328,2.7783708426708853,0.0,16,10,0
28.97777478867205,7.764571353075622,0.0,30,15,0
35.70831958986452,12.996765446375411,0.0,38,20,0
37.15861926850265,17.327348731368676,0.0,41,25,0
89.38304221623217,-41.6799970946206,8.62841853201816,99,-25,5
21.53068655324576,-7.836529028697031,2.0045820831961376,23,-20,5
23.0940044855774,-6.188019851911189,2.091737825943796,24,-15,5
23.545446292569768,-4.151697454202147,2.091737825943796,24,-10,5
23.817693036146498,-2.083778132003164,2.091737825943796,24,-5,5
23.908672754201895,0.0,2.091737825943796,24,0,5
21.83288528313429,1.9101299543362336,1.9174263404484797,22,5,5
18.64014498161773,3.2867604845766993,1.655959112205505,19,10,5
17.320503364183047,4.641014888933391,1.568803369457847,18,15,5
16.850102519931465,6.132935761588981,1.568803369457847,18,20,5
22.57147530712934,10.52525179157086,2.1788935686914543,25,25,5
22.313473382225748,-10.404943518169585,4.341204441673258,25,-25,10
15.732081832771497,-5.7260095101689075,2.952019020337816,17,-20,10
17.12252236615556,-4.587966040395218,3.125667198004746,18,-15,10
16.48738727668022,-2.9071712182681835,2.952019020337816,17,-10,10
17.659084719427323,-1.5449697211937632,3.125667198004746,18,-5,10
16.741731801207536,0.0,2.952019020337816,17,0,10
16.678024457236916,1.4591380700163317,2.952019020337816,17,5,10
16.48738727668022,2.9071712182681835,2.952019020337816,17,10,10
16.17127112359136,4.333079038151039,2.952019020337816,17,15,10
14.806665254373174,5.389185421335442,2.7783708426708853,16,20,10
16.06570083520254,7.491559333082102,3.125667198004746,18,25,10
15.757669765180676,-7.347922086181228,4.658742811845373,18,-25,15
11.799753825474793,-4.294759164141578,3.3646475863327696,13,-20,15
12.129165124598853,-3.2499999999999996,3.3646475863327696,13,-15,15
12.366266153334571,-2.180506373454768,3.3646475863327696,13,-10,15
12.509252429687757,-1.0944177767817995,3.3646475863327696,13,-5,15
12.557035741757888,0.0,3.3646475863327696,13,0,15
12.509252429687757,1.0944177767817995,3.3646475863327696,13,5,15
8.56126118307778,1.5095813354686856,2.3293714059226867,9,10,15
7.464101615137755,1.9999999999999998,2.070552360820166,8,15,15
11.799753825474793,4.294759164141578,3.3646475863327696,13,20,15
11.38053927485271,5.306832617797553,3.3646475863327696,13,25,15
11.071459615308905,-5.1627064055723375,4.446261863233693,13,-25,20
7.947199994035402,-2.8925442435894273,3.0781812899310186,9,-20,20
8.169060340713319,-2.1888931212152456,3.0781812899310186,9,-15,20
8.328749205584911,-1.4685832004988135,3.0781812899310186,9,-10,20
8.425051259965732,-0.7370964748718041,3.0781812899310186,9,-5,20
8.457233587073176,0.0,3.0781812899310186,9,0,20
8.425051259965732,0.7370964748718041,3.0781812899310186,9,5,20
9.254165783983234,1.6317591116653483,3.420201433256687,10,10,20
9.076733711903689,2.4321034680169396,3.420201433256687,10,15,20
8.830222215594892,3.2139380484326967,3.420201433256687,10,20,20
8.516507396391466,3.971312619671029,3.420201433256687,10,25,20
8.213938048432695,-3.83022221559489,4.2261826174069945,10,-25,25
5.961555177474025,-2.1698286345361124,2.9583278321848963,7,-20,25
6.127982686459151,-1.6419880120686312,2.9583278321848963,7,-15,25
6.24777254702321,-1.1016508693698386,2.9583278321848963,7,-10,25
6.320013085996214,-0.5529294983601594,2.9583278321848963,7,-5,25
6.3441545092565494,0.0,2.9583278321848963,7,0,25
6.320013085996214,0.5529294983601594,2.9583278321848963,7,5,25
6.24777254702321,1.1016508693698386,2.9583278321848963,7,10,25
6.127982686459151,1.6419880120686312,2.9583278321848963,7,15,25
5.961555177474025,2.1698286345361124,2.9583278321848963,7,20,25
6.571150438746157,3.064177772475912,3.3809460939255955,8,25,25
5.494198970549771,-2.561987055394668,3.4999999999999996,7,-25,30
4.068988406746869,-1.4809906636301193,2.4999999999999996,5,-20,30
4.18258151868904,-1.1207193402100668,2.4999999999999996,5,-15,30
4.2643426597622165,-0.7519186659021765,2.4999999999999996,5,-10,30
5.176379493976926,-0.45287452383103993,2.9999999999999996,6,-5,30
5.196152422706632,0.0,2.9999999999999996,6,0,30
5.176379493976926,0.45287452383103993,2.9999999999999996,6,5,30
5.117211191714659,0.9023023990826117,2.9999999999999996,6,10,30
5.019097822426848,1.3448632082520802,2.9999999999999996,6,15,30
4.882786088096243,1.777188796356143,2.9999999999999996,6,20,30
4.709313403328375,2.195988904624001,2.9999999999999996,6,25,30
4.4544232590366235,-2.077131678352525,3.4414586181062763,6,-25,35
3.079004525280229,-1.120665998372942,2.294305745404184,4,-20,35
3.1649604609448954,-0.8480485995866185,2.294305745404184,4,-15,35
4.0335364205579936,-0.7112212986146201,2.8678821817552302,5,-10,35
3.2641396938068334,-0.2855752193730786,2.294305745404184,4,-5,35
3.276608177155967,0.0,2.294305745404184,4,0,35
3.2641396938068334,0.2855752193730786,2.294305745404184,4,5,35
3.226829136446395,0.5689770388916962,2.294305745404184,4,10,35
3.1649604609448954,0.8480485995866185,2.294305745404184,4,15,35
3.079004525280229,1.120665998372942,2.294305745404184,4,20,35
2.9696155060244163,1.3847544522350166,2.294305745404184,4,25,35
2.7770881760595354,-1.2949774838682584,2.571150438746157,4,-25,40
2.879385241571817,-1.0480105209175397,2.571150438746157,4,-20,40
2.959768446775392,-0.7930675650965846,2.571150438746157,4,-15,40
3.0176260269419557,-0.532088886237956,2.571150438746157,4,-10,40
3.0525176509510787,-0.2670606896710028,2.571150438746157,4,-5,40
3.064177772475912,0.0,2.571150438746157,4,0,40
3.0525176509510787,0.2670606896710028,2.571150438746157,4,5,40
3.0176260269419557,0.532088886237956,2.571150438746157,4,10,40
2.959768446775392,0.7930675650965846,2.571150438746157,4,15,40
2.879385241571817,1.0480105209175397,2.571150438746157,4,20,40
2.7770881760595354,1.2949774838682584,2.571150438746157,4,25,40
2.563425528223154,-1.1953449549204793,2.82842712474619,4,-25,45
2.657852097554699,-0.9673790505919011,2.82842712474619,4,-20,45
2.7320508075688776,-0.7320508075688773,2.82842712474619,4,-15,45
2.785456961280076,-0.4911512158758914,2.82842712474619,4,-10,45
2.8176641056110348,-0.2465136668648774,2.82842712474619,4,-5,45
2.8284271247461903,0.0,2.82842712474619,4,0,45
2.8176641056110348,0.2465136668648774,2.82842712474619,4,5,45
2.785456961280076,0.4911512158758914,2.82842712474619,4,10,45
2.7320508075688776,0.7320508075688773,2.82842712474619,4,15,45
2.657852097554699,0.9673790505919011,2.82842712474619,4,20,45
2.563425528223154,1.1953449549204793,2.82842712474619,4,25,45
2.3302536642783416,-1.0866151290967379,3.064177772475912,4,-25,50
2.416091094220215,-0.8793852415718167,3.064177772475912,4,-20,50
2.483540612059383,-0.6654627013712077,3.064177772475912,4,-15,50
1.8990666646784673,-0.33485669114684896,2.298133329356934,3,-10,50
2.5613664350751875,-0.22409052620488853,3.064177772475912,4,-5,50
2.5711504387461575,0.0,3.064177772475912,4,0,50
2.5613664350751875,0.22409052620488853,3.064177772475912,4,5,50
2.5320888862379562,0.44647558819579863,3.064177772475912,4,10,50
1.862655459044537,0.49909702602840583,2.298133329356934,3,15,50
2.416091094220215,0.8793852415718167,3.064177772475912,4,20,50
2.3302536642783416,1.0866151290967379,3.064177772475912,4,25,50
